ply
format ascii 1.0
element vertex 591
property float x
property float y
property float z
property float error
end_header
3.21254730224609375 -4.54986286163330078 -6.65517044067382812 0.0252674035727977753
2.6633758544921875 -2.23073244094848633 -6.4379572868347168 0.0274260789155960083
3.22490811347961426 -4.39971542358398438 -7.73434734344482422 0.0256643947213888168
2.72396278381347656 -2.069732666015625 -7.46558475494384766 0.0292127132415771484
3.22929811477661133 -4.22051239013671875 -8.91101455688476562 0.0250407904386520386
2.77592206001281738 -1.87288057804107666 -8.58246421813964844 0.0242445450276136398
3.2194066047668457 -4.00648164749145508 -10.1827507019042969 0.0219448618590831757
2.82269573211669922 -1.64547944068908691 -9.79962158203125 0.0229837913066148758
3.19518136978149414 -3.76012754440307617 -11.5508232116699219 0.0169399138540029526
2.8639681339263916 -1.3841550350189209 -11.1360969543457031 0.019363701343536377
3.1648414134979248 -3.48983478546142578 -13.0149850845336914 0.0127644902095198631
2.89870905876159668 -1.09315347671508789 -12.5888671875 0.0159105788916349411
3.13519454002380371 -3.20208597183227539 -14.5827341079711914 0.0104161789640784264
2.93994140625 -0.787916183471679688 -14.1716909408569336 0.0128253195434808731
3.1069340705871582 -2.90775632858276367 -16.2727718353271484 0.00660300534218549728
2.96706199645996094 -0.469345927238464355 -15.8959341049194336 0.0099520515650510788
3.09387397766113281 -2.64235901832580566 -18.0676746368408203 0.0036990197841078043
3.02860903739929199 -0.243916720151901245 -17.8615875244140625 0.00512040266767144203
3.0843510627746582 -2.5 -20 0
3.0843510627746582 -1.28077602386474609 -20 0
3.0843510627746582 -0.500000059604644775 -20 5.9604644775390625e-08
3.0843510627746582 1.88761063668607676e-07 -20 1.88761063668607676e-07
3.86096453666687012 -2.5 20 0
3.86096453666687012 -1.28077602386474609 20 0
3.86096429824829102 -0.499999850988388062 20 2.81154541426076321e-07
3.86096453666687012 1.70538427823885286e-07 20 1.70538427823885286e-07
3.86309146881103516 -2.53418636322021484 18.0210514068603516 0.00105557963252067566
3.84607315063476562 -0.0739613324403762817 17.9488468170166016 0.00235663237981498241
3.86801409721374512 -2.62110328674316406 16.189849853515625 0.00245994911529123783
3.82296538352966309 -0.139876484870910645 16.0475254058837891 0.00445897970348596573
3.87586212158203125 -2.73491764068603516 14.4921169281005859 0.00379320257343351841
3.80312967300415039 -0.256990522146224976 14.3146867752075195 0.00564818410202860832
3.88478970527648926 -2.85689187049865723 12.9217844009399414 0.00605353713035583496
3.77628850936889648 -0.387073427438735962 12.7161407470703125 0.00707253441214561462
3.89569306373596191 -2.98628950119018555 11.4708890914916992 0.00826270133256912231
3.74788713455200195 -0.525604546070098877 11.2359027862548828 0.0067155701108276844
3.90671873092651367 -3.11815619468688965 10.1258182525634766 0.00981035083532333374
3.71466946601867676 -0.675749480724334717 9.8620452880859375 0.00880362372845411301
3.91251754760742188 -3.2504274845123291 8.87576103210449219 0.0127896843478083611
3.67175889015197754 -0.838210105895996094 8.58790969848632812 0.0110967224463820457
3.90875029563903809 -3.38350534439086914 7.71290063858032227 0.0122936582192778587
3.62102031707763672 -1.00565338134765625 7.41005611419677734 0.0133999502286314964
3.89818048477172852 -3.51242399215698242 6.63499546051025391 0.00825551245361566544
3.56677842140197754 -1.17336320877075195 6.31826305389404297 0.0164409372955560684
3.88610458374023438 -3.64715099334716797 5.63962936401367188 0.00952784903347492218
3.50974392890930176 -1.32886981964111328 5.30576372146606445 0.00884941406548023224
3.87270689010620117 -3.78008937835693359 4.722076416015625 0.0111239152029156685
3.45515012741088867 -1.48462939262390137 4.37518548965454102 0.00809121038764715195
3.86050724983215332 -3.90995097160339355 3.8710930347442627 0.0122754406183958054
3.40317344665527344 -1.63587641716003418 3.52376365661621094 0.00972925778478384018
3.84833717346191406 -4.02742910385131836 3.08597993850708008 0.00801683682948350906
3.36333942413330078 -1.7784419059753418 2.74749994277954102 0.0207670982927083969
3.83892345428466797 -4.13902902603149414 2.36148929595947266 0.00675654411315917969
3.32707357406616211 -1.9144742488861084 2.03150463104248047 0.0287994910031557083
3.83269715309143066 -4.24350118637084961 1.69534134864807129 0.00949345994740724564
3.27456164360046387 -2.0276036262512207 1.3789207935333252 0.0185654386878013611
3.83212542533874512 -4.32951259613037109 1.07869112491607666 0.00478825252503156662
3.23398351669311523 -2.11089873313903809 0.782808184623718262 0.00335559644736349583
3.83373737335205078 -4.40820598602294922 0.506356894969940186 0.0129308793693780899
3.21800398826599121 -2.19532942771911621 0.240105003118515015 0.00773186748847365379
3.83812451362609863 -4.46827602386474609 -0.0225084926933050156 0.0123508237302303314
3.20601582527160645 -2.26590180397033691 -0.259949326515197754 0.0180504508316516876
3.84416961669921875 -4.5155024528503418 -0.550179600715637207 0.0109362667426466942
3.19546246528625488 -2.31434440612792969 -0.751876115798950195 0.0202884487807750702
3.8571772575378418 -4.55947494506835938 -1.11847424507141113 0.0171883031725883484
3.18671536445617676 -2.35436367988586426 -1.27955710887908936 0.0340664759278297424
3.869415283203125 -4.58941841125488281 -1.73237931728363037 0.0174474362283945084
3.19441628456115723 -2.36737513542175293 -1.8444054126739502 0.0356343202292919159
3.88542819023132324 -4.60541677474975586 -2.39752650260925293 0.0192399471998214722
3.22639560699462891 -2.36723518371582031 -2.46138548851013184 0.0318841822445392609
3.90793514251708984 -4.59959268569946289 -3.11691594123840332 0.0211423411965370178
3.26628208160400391 -2.34418678283691406 -3.13331389427185059 0.0309165939688682556
3.93142914772033691 -4.57800436019897461 -3.89902210235595703 0.0258174221962690353
3.30843448638916016 -2.30025482177734375 -3.86492371559143066 0.0329873263835906982
3.95778656005859375 -4.52546882629394531 -4.74577999114990234 0.0250088758766651154
3.35564517974853516 -2.22583484649658203 -4.65423774719238281 0.0248950459063053131
3.97586631774902344 -4.45128345489501953 -5.66058111190795898 0.0248196572065353394
3.40954303741455078 -2.12729740142822266 -5.5120849609375 0.0162213966250419617
3.99152302742004395 -4.35068225860595703 -6.65097284317016602 0.0246499329805374146
3.46293282508850098 -2.01460814476013184 -6.45288705825805664 0.0195967908948659897
4.00321245193481445 -4.22295761108398438 -7.72995615005493164 0.0242657270282506943
3.51421070098876953 -1.87964344024658203 -7.4834589958190918 0.0259969066828489304
4.00833272933959961 -4.06388759613037109 -8.90639591217041016 0.0232848245650529861
3.55808138847351074 -1.70746219158172607 -8.60317611694335938 0.0251129362732172012
3.99460148811340332 -3.87406063079833984 -10.1769046783447266 0.0214416943490505219
3.60014915466308594 -1.50115036964416504 -9.82237815856933594 0.0224963035434484482
3.9699404239654541 -3.65263938903808594 -11.543060302734375 0.0172489676624536514
3.63832616806030273 -1.26198363304138184 -11.1571826934814453 0.017977522686123848
3.94131803512573242 -3.40436887741088867 -13.0088272094726562 0.0136012602597475052
3.67269325256347656 -0.996966958045959473 -12.6087932586669922 0.0174910146743059158
3.9119880199432373 -3.14022135734558105 -14.5759124755859375 0.010217408649623394
3.71494579315185547 -0.716981470584869385 -14.1905479431152344 0.0136388326063752174
3.8840029239654541 -2.86783695220947266 -16.26715087890625 0.0065602622926235199
3.74392318725585938 -0.425125658512115479 -15.9153709411621094 0.00984264258295297623
3.87002730369567871 -2.6278531551361084 -18.0647945404052734 0.00328668439760804176
3.80537986755371094 -0.222820460796356201 -17.8716182708740234 0.00480924639850854874
3.86096453666687012 -2.5 -20 0
3.86096429824829102 -1.28077602386474609 -20 2.384185791015625e-07
3.86096453666687012 -0.5 -20 0
3.86096453666687012 -4.67453737940104475e-08 -20 4.67453737940104475e-08
4.70127630233764648 -2.5 20 0
4.70127630233764648 -1.28077614307403564 20 1.1920928955078125e-07
4.70127630233764648 -0.500000059604644775 20 5.9604644775390625e-08
4.70127582550048828 -8.11098121999975774e-09 20 4.7690610927020316e-07
4.70339202880859375 -2.53006649017333984 18.0185718536376953 0.000865104724653065205
4.68655729293823242 -0.0661524906754493713 17.9536285400390625 0.00199616327881813049
4.70792198181152344 -2.60753202438354492 16.1856250762939453 0.00161032041069120169
4.66387748718261719 -0.12571464478969574 16.0577621459960938 0.00381836970336735249
4.71615743637084961 -2.71087765693664551 14.4864025115966797 0.00307211745530366898
4.64420413970947266 -0.231375053524971008 14.3262491226196289 0.00501093361526727676
4.72417497634887695 -2.82181072235107422 12.9147319793701172 0.00565277179703116417
4.6173863410949707 -0.348609775304794312 12.7291898727416992 0.00606310507282614708
4.73365211486816406 -2.93698644638061523 11.4604873657226562 0.00782761629670858383
4.58971977233886719 -0.473239719867706299 11.2517910003662109 0.00637483783066272736
4.74350833892822266 -3.05383992195129395 10.1145429611206055 0.00995420012623071671
4.55695772171020508 -0.607119143009185791 9.87889289855957031 0.00740568293258547783
4.75084495544433594 -3.16993951797485352 8.86602497100830078 0.0101017504930496216
4.51505756378173828 -0.75056225061416626 8.60842990875244141 0.0102483825758099556
4.74738979339599609 -3.28911209106445312 7.70457172393798828 0.0125258555635809898
4.46795463562011719 -0.897169113159179688 7.43217086791992188 0.0124662593007087708
4.73823404312133789 -3.40335607528686523 6.63000965118408203 0.00873511098325252533
4.41540241241455078 -1.0447840690612793 6.34353923797607422 0.0149795366451144218
4.7266688346862793 -3.51895046234130859 5.63675212860107422 0.00880071520805358887
4.36554527282714844 -1.18415045738220215 5.33888053894042969 0.0119101963937282562
4.71499776840209961 -3.63627934455871582 4.72001504898071289 0.012323359027504921
4.31591892242431641 -1.31929600238800049 4.41248750686645508 0.0104014519602060318
4.70740079879760742 -3.74785375595092773 3.87396788597106934 0.0152895702049136162
4.26941299438476562 -1.45023679733276367 3.56513190269470215 0.0104339197278022766
4.70229053497314453 -3.85125303268432617 3.0913233757019043 0.0147464759647846222
4.23235607147216797 -1.57008981704711914 2.78988742828369141 0.0132566774263978004
4.69922256469726562 -3.94589567184448242 2.37070822715759277 0.0144441360607743263
4.20196008682250977 -1.67897701263427734 2.07727551460266113 0.0196749288588762283
4.6991119384765625 -4.03248262405395508 1.70475924015045166 0.0159872099757194519
4.16915559768676758 -1.78082728385925293 1.4258807897567749 0.0219543837010860443
4.69854497909545898 -4.10535240173339844 1.08831214904785156 0.0143222147598862648
4.13666963577270508 -1.86080479621887207 0.830924570560455322 0.0164673104882240295
4.70098400115966797 -4.16686296463012695 0.517633318901062012 0.0111368028447031975
4.1147618293762207 -1.91960835456848145 0.286893844604492188 0.0101289302110671997
4.70827674865722656 -4.22006988525390625 -0.00865392573177814484 0.0151750817894935608
4.10940456390380859 -1.96868109703063965 -0.214408665895462036 0.00872811116278171539
4.71812820434570312 -4.26172733306884766 -0.53479999303817749 0.0157067552208900452
4.10717058181762695 -2.00803732872009277 -0.714863896369934082 0.0109834689646959305
4.73108720779418945 -4.29691791534423828 -1.10356640815734863 0.0130625925958156586
4.11028957366943359 -2.04151678085327148 -1.2495875358581543 0.0130337746813893318
4.74380636215209961 -4.32885265350341797 -1.71798169612884521 0.0183870624750852585
4.11783218383789062 -2.07264184951782227 -1.82745194435119629 0.0267962068319320679
4.75959634780883789 -4.34427595138549805 -2.38491940498352051 0.0199702288955450058
4.13325834274291992 -2.07668614387512207 -2.44263291358947754 0.0255349446088075638
4.77530193328857422 -4.34799385070800781 -3.10787510871887207 0.0234847646206617355
4.16743850708007812 -2.0705866813659668 -3.12126326560974121 0.0303653329610824585
4.79372549057006836 -4.33434104919433594 -3.89277172088623047 0.0279059633612632751
4.20377445220947266 -2.03247356414794922 -3.86034560203552246 0.0253775957971811295
4.80801486968994141 -4.29490566253662109 -4.73952722549438477 0.0269355811178684235
4.24333953857421875 -1.98059391975402832 -4.65789604187011719 0.0260905846953392029
4.82250356674194336 -4.23477745056152344 -5.65502500534057617 0.025731971487402916
4.28887271881103516 -1.9023514986038208 -5.52648735046386719 0.0229498986154794693
4.83648824691772461 -4.14900636672973633 -6.64863920211791992 0.0232632718980312347
4.33000040054321289 -1.80309832096099854 -6.46958732604980469 0.021883813664317131
4.84627962112426758 -4.03885364532470703 -7.7276453971862793 0.0221080109477043152
4.37183523178100586 -1.68141806125640869 -7.50115537643432617 0.023477526381611824
4.8463139533996582 -3.90030646324157715 -8.90200233459472656 0.0188800524920225143
4.40875720977783203 -1.52892637252807617 -8.624176025390625 0.0212611295282840729
4.83166217803955078 -3.73244524002075195 -10.1701669692993164 0.0186673272401094437
4.44449710845947266 -1.34687447547912598 -9.84513473510742188 0.0216292012482881546
4.80617332458496094 -3.53629398345947266 -11.5357437133789062 0.0159024111926555634
4.47954702377319336 -1.13423705101013184 -11.1795444488525391 0.0187794249504804611
4.78045558929443359 -3.3113095760345459 -12.998661994934082 0.012489665299654007
4.51405858993530273 -0.892700791358947754 -12.6300773620605469 0.0167185105383396149
4.75092124938964844 -3.07414007186889648 -14.5676765441894531 0.0100705837830901146
4.55609273910522461 -0.640535652637481689 -14.2115898132324219 0.0128792515024542809
4.72440385818481445 -2.8259892463684082 -16.2578392028808594 0.00646499311551451683
4.58715105056762695 -0.377521604299545288 -15.9370965957641602 0.0088510364294052124
4.70933961868286133 -2.61183905601501465 -18.0605487823486328 0.00319786323234438896
4.64739990234375 -0.199805289506912231 -17.88372802734375 0.00476617598906159401
4.70127630233764648 -2.5 -20 0
4.70127630233764648 -1.28077602386474609 -20 0
4.70127630233764648 -0.499999940395355225 -20 5.9604644775390625e-08
4.70127630233764648 1.23455734524213767e-07 -20 1.23455734524213767e-07
5.61051034927368164 -2.5 20 0
5.61051034927368164 -1.28077602386474609 20 0
5.61051034927368164 -0.500000119209289551 20 1.1920928955078125e-07
5.61051034927368164 4.99025931688379387e-10 20 4.99025931688379387e-10
5.61246442794799805 -2.52576231956481934 18.0157928466796875 0.000793169892858713865
5.596282958984375 -0.0577863939106464386 17.9588985443115234 0.00167623430024832487
5.61665201187133789 -2.5936586856842041 16.1809024810791016 0.00129808671772480011
5.57459878921508789 -0.110915839672088623 16.0681781768798828 0.00323272286914288998
5.62482786178588867 -2.68473291397094727 14.4807920455932617 0.00175399438012391329
5.55518388748168945 -0.204368829727172852 14.3379726409912109 0.0041830260306596756
5.63213396072387695 -2.78385066986083984 12.9074735641479492 0.00458188215270638466
5.529083251953125 -0.308638274669647217 12.7428436279296875 0.00544079253450036049
5.64032173156738281 -2.88658905029296875 11.452031135559082 0.00716953910887241364
5.50275754928588867 -0.419397622346878052 11.2677402496337891 0.00625873170793056488
5.64789533615112305 -2.98755645751953125 10.1034870147705078 0.00897588487714529037
5.47148227691650391 -0.536902189254760742 9.89834880828857422 0.0080659128725528717
5.65511465072631836 -3.08707857131958008 8.85647678375244141 0.0081303352490067482
5.43258953094482422 -0.659325778484344482 8.63078403472900391 0.00884686224162578583
5.65341043472290039 -3.19074082374572754 7.69742918014526367 0.0104887690395116806
5.3884124755859375 -0.784173965454101562 7.45789909362792969 0.00990412291139364243
5.64655923843383789 -3.293426513671875 6.62459230422973633 0.0107529629021883011
5.34216594696044922 -0.914635419845581055 6.37425899505615234 0.0156103949993848801
5.63811492919921875 -3.39123106002807617 5.63506364822387695 0.00906070135533809662
5.29519844055175781 -1.03161215782165527 5.37307262420654297 0.0100198434665799141
5.6298828125 -3.4893643856048584 4.72002220153808594 0.0107781421393156052
5.25164508819580078 -1.15440154075622559 4.45214748382568359 0.0156051348894834518
5.62411594390869141 -3.58379316329956055 3.87597274780273438 0.0132531570270657539
5.21014308929443359 -1.27190494537353516 3.60483860969543457 0.0228699874132871628
5.62279319763183594 -3.67429399490356445 3.09586167335510254 0.0174905154854059219
5.17840099334716797 -1.37166357040405273 2.82959604263305664 0.0210098046809434891
5.62570905685424805 -3.75358009338378906 2.37643074989318848 0.0171217713505029678
5.14999008178710938 -1.46082818508148193 2.11619949340820312 0.0183820910751819611
5.62894535064697266 -3.82615232467651367 1.71216475963592529 0.0188857745379209518
5.12816333770751953 -1.54542911052703857 1.46650040149688721 0.0240029953420162201
5.63525152206420898 -3.88624358177185059 1.09705221652984619 0.0179712716490030289
5.11005687713623047 -1.61343789100646973 0.869004964828491211 0.0252022463828325272
5.64143753051757812 -3.93741393089294434 0.527892947196960449 0.017189590260386467
5.09270477294921875 -1.66571652889251709 0.324080824851989746 0.0215259399265050888
5.64788055419921875 -3.98114776611328125 0.00195359974168241024 0.0184378381818532944
5.08489704132080078 -1.70590424537658691 -0.178348049521446228 0.0199166350066661835
5.65697860717773438 -4.01719284057617188 -0.522996604442596436 0.0182068459689617157
5.08217191696166992 -1.73592662811279297 -0.681079506874084473 0.0154120102524757385
5.67076683044433594 -4.04818058013916016 -1.09142351150512695 0.0176393035799264908
5.08793449401855469 -1.76382613182067871 -1.2216949462890625 0.0142355784773826599
5.68363380432128906 -4.07613658905029297 -1.70717298984527588 0.019642537459731102
5.10176897048950195 -1.78748726844787598 -1.80624830722808838 0.0179567821323871613
5.69449663162231445 -4.09542655944824219 -2.37530159950256348 0.0216053668409585953
5.12178277969360352 -1.80519962310791016 -2.43926787376403809 0.0293005015701055527
5.70471715927124023 -4.10162830352783203 -3.10030364990234375 0.0232322476804256439
5.14302825927734375 -1.79660940170288086 -3.11975431442260742 0.0275512151420116425
5.71674060821533203 -4.09609699249267578 -3.88463926315307617 0.0289582051336765289
5.17102956771850586 -1.78046643733978271 -3.86087298393249512 0.0333975814282894135
5.72826814651489258 -4.06848239898681641 -4.73313236236572266 0.0280937310308218002
5.200164794921875 -1.73739814758300781 -4.66311454772949219 0.0327573493123054504
5.74128961563110352 -4.02101802825927734 -5.65126562118530273 0.0275726132094860077
5.23528337478637695 -1.67093205451965332 -5.53589439392089844 0.0269691776484251022
5.75136566162109375 -3.94923853874206543 -6.6458888053894043 0.024374866858124733
5.2681279182434082 -1.58446764945983887 -6.48650550842285156 0.0227603055536746979
5.75684595108032227 -3.85508584976196289 -7.72552633285522461 0.0208529923111200333
5.30065631866455078 -1.47844958305358887 -7.52052974700927734 0.0215353257954120636
5.75002813339233398 -3.73745536804199219 -8.89674568176269531 0.0198856163769960403
5.33138751983642578 -1.34395098686218262 -8.64580917358398438 0.0184469167143106461
5.73407983779907227 -3.5885319709777832 -10.1631145477294922 0.015950055792927742
5.36196660995483398 -1.18621659278869629 -9.8689117431640625 0.0188388600945472717
5.71091604232788086 -3.41474008560180664 -11.5259943008422852 0.0138170700520277023
5.39391374588012695 -0.99838101863861084 -11.2026920318603516 0.0171350631862878799
5.68562412261962891 -3.21457386016845703 -12.9866819381713867 0.0104370322078466415
5.42870855331420898 -0.784588098526000977 -12.6536178588867188 0.0147295296192169189
5.65758705139160156 -3.00377368927001953 -14.5559825897216797 0.0087958071380853653
5.46925497055053711 -0.561120212078094482 -14.2347526550292969 0.0119994189590215683
5.63279390335083008 -2.78219437599182129 -16.2456836700439453 0.00591116119176149368
5.50196266174316406 -0.328275620937347412 -15.9606685638427734 0.00816121045500040054
5.61775779724121094 -2.59502840042114258 -18.0565357208251953 0.00296011311002075672
5.55949068069458008 -0.175149902701377869 -17.8963508605957031 0.00470483163371682167
5.61051034927368164 -2.5 -20 0
5.61051034927368164 -1.28077602386474609 -20 0
5.61051034927368164 -0.500000059604644775 -20 5.9604644775390625e-08
5.61051034927368164 5.53547856441127806e-08 -20 5.53547856441127806e-08
6.59432029724121094 -2.5 20 0
6.59432029724121094 -1.28077590465545654 20 1.1920928955078125e-07
6.59432029724121094 -0.499999880790710449 20 1.1920928955078125e-07
6.59432029724121094 2.47645193240941808e-08 20 2.47645193240941808e-08
6.59594535827636719 -2.52118706703186035 18.0128631591796875 0.000498882494866847992
6.58070182800292969 -0.0487383976578712463 17.9645023345947266 0.00126700231339782476
6.59996747970581055 -2.57923650741577148 16.1759910583496094 0.000784859759733080864
6.56079435348510742 -0.095264337956905365 16.079345703125 0.00247515086084604263
6.60773849487304688 -2.65842390060424805 14.4750089645385742 0.00129491032566875219
6.54140758514404297 -0.176591306924819946 14.3507966995239258 0.00344069977290928364
6.61434316635131836 -2.74469614028930664 12.9005603790283203 0.00338789168745279312
6.51707267761230469 -0.266374021768569946 12.7565746307373047 0.00386227224953472614
6.62138128280639648 -2.83245730400085449 11.4439411163330078 0.00448538223281502724
6.49138498306274414 -0.361876964569091797 11.2845840454101562 0.0042481529526412487
6.6268925666809082 -2.92069530487060547 10.0942115783691406 0.00693322625011205673
6.46343374252319336 -0.462676465511322021 9.91905879974365234 0.00551328668370842934
6.63305568695068359 -3.00644731521606445 8.84607887268066406 0.00828555598855018616
6.42795228958129883 -0.568418204784393311 8.65413951873779297 0.00760120432823896408
6.63394498825073242 -3.09231042861938477 7.69131088256835938 0.00856813136488199234
6.38894271850585938 -0.674429535865783691 7.48432540893554688 0.0101741449907422066
6.62992143630981445 -3.1784822940826416 6.62146615982055664 0.00800238363444805145
6.34701299667358398 -0.779726207256317139 6.40358209609985352 0.0124126337468624115
6.62433767318725586 -3.26547002792358398 5.63349008560180664 0.0112195489928126335
6.30776739120483398 -0.885578691959381104 5.4078679084777832 0.0161093343049287796
6.61976909637451172 -3.34932804107666016 4.72116184234619141 0.0131839336827397346
6.26993036270141602 -0.984571099281311035 4.48984241485595703 0.0164216980338096619
6.61780881881713867 -3.42914390563964844 3.87867999076843262 0.0160877052694559097
6.23620319366455078 -1.081809401512146 3.64633011817932129 0.021475011482834816
6.6181788444519043 -3.50237655639648438 3.10074067115783691 0.0179651901125907898
6.20690250396728516 -1.16468131542205811 2.87107133865356445 0.0185897406190633774
6.62162494659423828 -3.57022833824157715 2.3814542293548584 0.0205928925424814224
6.18340253829956055 -1.24164128303527832 2.16141629219055176 0.0199047122150659561
6.62686681747436523 -3.62548923492431641 1.71758866310119629 0.0180156584829092026
6.16556930541992188 -1.30480051040649414 1.50776290893554688 0.0169147290289402008
6.63299942016601562 -3.67694926261901855 1.10404133796691895 0.0199870280921459198
6.15284347534179688 -1.36354243755340576 0.907670736312866211 0.0200052820146083832
6.64005374908447266 -3.71995306015014648 0.536226630210876465 0.0193230621516704559
6.14406967163085938 -1.40923380851745605 0.356893628835678101 0.0195531789213418961
6.64752864837646484 -3.75491762161254883 0.010462283156812191 0.0184920933097600937
6.13962221145629883 -1.44881772994995117 -0.149800017476081848 0.0229750685393810272
6.65574979782104492 -3.78402996063232422 -0.514729976654052734 0.0160126518458127975
6.13643407821655273 -1.48389279842376709 -0.654448509216308594 0.0272135511040687561
6.66469669342041016 -3.81583786010742188 -1.08482933044433594 0.0188387185335159302
6.14155817031860352 -1.50492477416992188 -1.19869959354400635 0.023800993338227272
6.67335844039916992 -3.8388676643371582 -1.70113480091094971 0.0178626924753189087
6.15418815612792969 -1.52215778827667236 -1.78695273399353027 0.0225894320756196976
6.68510580062866211 -3.85734844207763672 -2.3690180778503418 0.0202201958745718002
6.17061042785644531 -1.53027939796447754 -2.42455744743347168 0.0216445829719305038
6.69675445556640625 -3.86836791038513184 -3.09281754493713379 0.0244347751140594482
6.18860769271850586 -1.53115105628967285 -3.11596417427062988 0.026282481849193573
6.70976734161376953 -3.8649754524230957 -3.87725114822387695 0.0270145293325185776
6.21033763885498047 -1.52189743518829346 -3.86162900924682617 0.0336466021835803986
6.72229528427124023 -3.84705209732055664 -4.72680950164794922 0.0283142272382974625
6.23283672332763672 -1.48845648765563965 -4.66961956024169922 0.031064741313457489
6.73253631591796875 -3.81025314331054688 -5.64644289016723633 0.0281513873487710953
6.25619792938232422 -1.43197298049926758 -5.54586029052734375 0.0235547665506601334
6.73786687850952148 -3.75131082534790039 -6.64285516738891602 0.0229001883417367935
6.28177404403686523 -1.36226677894592285 -6.4996795654296875 0.0205750353634357452
6.73577308654785156 -3.67095160484313965 -7.72258329391479492 0.0179663822054862976
6.30619907379150391 -1.27394473552703857 -7.53885173797607422 0.0204846728593111038
6.72515726089477539 -3.56915140151977539 -8.89170169830322266 0.0149920936673879623
6.33062648773193359 -1.16073369979858398 -8.66647720336914062 0.0172647144645452499
6.70934295654296875 -3.44278287887573242 -10.153132438659668 0.0145292757079005241
6.3581080436706543 -1.02440738677978516 -9.89257907867431641 0.0180989280343055725
6.68760967254638672 -3.29207849502563477 -11.5131216049194336 0.0132063031196594238
6.38707304000854492 -0.861726880073547363 -11.2271823883056641 0.0158676877617835999
6.66362380981445312 -3.11664414405822754 -12.9714183807373047 0.00974292494356632233
6.42156791687011719 -0.674689412117004395 -12.678858757019043 0.0133372321724891663
6.63772821426391602 -2.93162441253662109 -14.5413618087768555 0.00817284081131219864
6.46053361892700195 -0.4800681471824646 -14.2593002319335938 0.0107629280537366867
6.61492204666137695 -2.73885679244995117 -16.2332515716552734 0.00532137835398316383
6.49439239501953125 -0.278781771659851074 -15.9848384857177734 0.00798575673252344131
6.60071897506713867 -2.57825779914855957 -18.0485057830810547 0.0030146308708935976
6.54760503768920898 -0.148432463407516479 -17.9101047515869141 0.00414126180112361908
6.59432029724121094 -2.5 -20 0
6.59432029724121094 -1.28077614307403564 -20 1.1920928955078125e-07
6.59432029724121094 -0.500000119209289551 -20 1.1920928955078125e-07
6.59432029724121094 -6.01296790136984782e-10 -20 6.01296790136984782e-10
7.65882253646850586 -2.5 20 0
7.65882253646850586 -1.28077602386474609 20 0
7.65882253646850586 -0.499999940395355225 20 5.9604644775390625e-08
7.65882253646850586 5.73759635358328524e-08 20 5.73759635358328524e-08
7.66002273559570312 -2.51682639122009277 18.0103073120117188 0.000426071870606392622
7.6463313102722168 -0.0398107655346393585 17.9705753326416016 0.000987642910331487656
7.66399335861206055 -2.56479334831237793 16.1717967987060547 0.000450701249064877629
7.6280360221862793 -0.0797362774610519409 16.0905303955078125 0.00199216301552951336
7.67080450057983398 -2.63103365898132324 14.4689931869506836 0.000812018872238695621
7.60975885391235352 -0.148221462965011597 14.3642683029174805 0.00225260201841592789
7.67731618881225586 -2.70429277420043945 12.8940658569335938 0.00154023454524576664
7.58640003204345703 -0.223851636052131653 12.7706508636474609 0.00303946994245052338
7.68307304382324219 -2.78004765510559082 11.4364280700683594 0.00367193203419446945
7.56332921981811523 -0.306082695722579956 11.3012113571166992 0.00345530500635504723
7.68777751922607422 -2.85309290885925293 10.0869607925415039 0.00418340601027011871
7.53775596618652344 -0.389426499605178833 9.93951225280761719 0.00509196287021040916
7.69035625457763672 -2.9276728630065918 8.83799171447753906 0.00723547022789716721
7.50839424133300781 -0.47692754864692688 8.67934799194335938 0.00565632758662104607
7.69406509399414062 -2.99565482139587402 7.68513154983520508 0.0057938634417951107
7.47403955459594727 -0.565600991249084473 7.51234817504882812 0.00873601343482732773
7.69314479827880859 -3.06964778900146484 6.61890745162963867 0.00842293258756399155
7.43798637390136719 -0.652969717979431152 6.43542146682739258 0.0114066433161497116
7.69118785858154297 -3.14141154289245605 5.63287782669067383 0.0104052210226655006
7.40503883361816406 -0.738333046436309814 5.44210195541381836 0.0143826883286237717
7.69031476974487305 -3.21014118194580078 4.72170686721801758 0.0123288845643401146
7.37413644790649414 -0.818909704685211182 4.52763986587524414 0.0156056703999638557
7.69070911407470703 -3.27476739883422852 3.88048386573791504 0.0141988480463624001
7.34582853317260742 -0.894082784652709961 3.68632912635803223 0.0163021814078092575
7.69277238845825195 -3.33516240119934082 3.10324931144714355 0.0157830100506544113
7.3233189582824707 -0.960678458213806152 2.91243386268615723 0.0146486004814505577
7.69670295715332031 -3.38963961601257324 2.38465380668640137 0.0172259937971830368
7.30398178100585938 -1.02360141277313232 2.20035624504089355 0.0158084463328123093
7.70155429840087891 -3.43568301200866699 1.72123634815216064 0.0156241655349731445
7.28919839859008789 -1.07833421230316162 1.546173095703125 0.0169636085629463196
7.70668983459472656 -3.47811651229858398 1.10792803764343262 0.0160054303705692291
7.2793269157409668 -1.12440526485443115 0.943931341171264648 0.016870453953742981
7.71234416961669922 -3.51275062561035156 0.540278315544128418 0.0154047207906842232
7.27532148361206055 -1.16228079795837402 0.389548420906066895 0.0160922035574913025
7.71846723556518555 -3.54235219955444336 0.0151209030300378799 0.0153798460960388184
7.27300834655761719 -1.1946101188659668 -0.120207376778125763 0.0178020354360342026
7.72646236419677734 -3.56941556930541992 -0.510008931159973145 0.0165586601942777634
7.2745823860168457 -1.22398817539215088 -0.62821495532989502 0.0216018501669168472
7.73560428619384766 -3.59384584426879883 -1.0783158540725708 0.0170910060405731201
7.27736616134643555 -1.24543070793151855 -1.17686343193054199 0.0210480857640504837
7.74810886383056641 -3.61639976501464844 -1.69441103935241699 0.0188494939357042313
7.28381109237670898 -1.2633507251739502 -1.77074384689331055 0.0222903043031692505
7.76013088226318359 -3.63307523727416992 -2.3628685474395752 0.0204466879367828369
7.29281473159790039 -1.27316999435424805 -2.41237068176269531 0.0235425755381584167
7.77053070068359375 -3.64400720596313477 -3.0859074592590332 0.0226481407880783081
7.30669927597045898 -1.27256274223327637 -3.10661816596984863 0.0232837256044149399
7.78394460678100586 -3.64342832565307617 -3.8706660270690918 0.0238067712634801865
7.32333707809448242 -1.26077520847320557 -3.85786151885986328 0.0223619751632213593
7.79268932342529297 -3.63116145133972168 -4.72027778625488281 0.0238197650760412216
7.33958101272583008 -1.23651719093322754 -4.67179298400878906 0.0215868595987558365
7.79760646820068359 -3.60210537910461426 -5.64149713516235352 0.0222901254892349243
7.35675859451293945 -1.20036888122558594 -5.55567550659179688 0.0227548591792583466
7.79669570922851562 -3.55511951446533203 -6.63933801651000977 0.0187373310327529907
7.37462139129638672 -1.14537727832794189 -6.51576852798461914 0.020753791555762291
7.78938770294189453 -3.49055981636047363 -7.71794033050537109 0.0162131078541278839
7.39359188079833984 -1.07191348075866699 -7.55780363082885742 0.0181826483458280563
7.77875232696533203 -3.40401268005371094 -8.88271236419677734 0.0134424204006791115
7.41399335861206055 -0.978195905685424805 -8.68933677673339844 0.0165062863379716873
7.76278781890869141 -3.29633855819702148 -10.1412105560302734 0.0119224060326814651
7.43786191940307617 -0.861792564392089844 -9.91677188873291016 0.0158160869032144547
7.74317264556884766 -3.16701054573059082 -11.4970932006835938 0.0103626800701022148
7.46592378616333008 -0.723922491073608398 -11.2524147033691406 0.013350372202694416
7.72095298767089844 -3.01840782165527344 -12.9555845260620117 0.00877071265131235123
7.49849653244018555 -0.566017210483551025 -12.7039146423339844 0.012007630430161953
7.69779872894287109 -2.85925126075744629 -14.5260429382324219 0.00689642410725355148
7.53600311279296875 -0.399592995643615723 -14.2854986190795898 0.00861859414726495743
7.67754459381103516 -2.69607639312744141 -16.2200489044189453 0.00447394838556647301
7.56966781616210938 -0.229429453611373901 -16.0102348327636719 0.00698381103575229645
7.66452169418334961 -2.56180191040039062 -18.0406723022460938 0.0023516255896538496
7.61735773086547852 -0.122027888894081116 -17.9240837097167969 0.00402815500274300575
7.65882253646850586 -2.5 -20 0
7.65882253646850586 -1.28077602386474609 -20 0
7.65882253646850586 -0.500000059604644775 -20 5.9604644775390625e-08
7.65882253646850586 -1.3747866489666194e-07 -20 1.3747866489666194e-07
8.81063556671142578 -2.5 20 0
8.81063556671142578 -1.28077602386474609 20 0
8.81063556671142578 -0.500000119209289551 20 1.1920928955078125e-07
8.81063556671142578 5.3586017401130448e-08 20 5.3586017401130448e-08
8.81165504455566406 -2.51248407363891602 18.0075778961181641 0.000119438904221169651
8.7992706298828125 -0.0311128683388233185 17.97625732421875 0.00068275845842435956
8.81518650054931641 -2.55124998092651367 16.1675376892089844 0.000627914152573794127
8.78339958190917969 -0.0636688768863677979 16.1020851135253906 0.00152465363498777151
8.82104110717773438 -2.60443687438964844 14.4634790420532227 0.000660607940517365932
8.76603603363037109 -0.119896218180656433 14.3776931762695312 0.00166244246065616608
8.82686328887939453 -2.66487002372741699 12.8877859115600586 0.000959586235694587231
8.74523448944091797 -0.182772263884544373 12.7858343124389648 0.00221090973354876041
8.83190727233886719 -2.72743749618530273 11.4303483963012695 0.00178454152774065733
8.72394371032714844 -0.249887928366661072 11.3173694610595703 0.00241630431264638901
8.83612346649169922 -2.78873324394226074 10.0813121795654297 0.00304757547564804554
8.70140933990478516 -0.318319916725158691 9.95872020721435547 0.00273447390645742416
8.83819293975830078 -2.84890389442443848 8.83252143859863281 0.00437668245285749435
8.67703628540039062 -0.38850829005241394 8.70327281951904297 0.00407615862786769867
8.83971595764160156 -2.90688419342041016 7.67860984802246094 0.00486596021801233292
8.64966583251953125 -0.459179818630218506 7.54104518890380859 0.00519146816805005074
8.84205150604248047 -2.96320152282714844 6.61485433578491211 0.00555949052795767784
8.61983680725097656 -0.529848098754882812 6.46704196929931641 0.00794406048953533173
8.84410190582275391 -3.01909637451171875 5.63211202621459961 0.00656825723126530647
8.59056758880615234 -0.596652388572692871 5.47586679458618164 0.00986891705542802811
8.84594249725341797 -3.0746300220489502 4.7225956916809082 0.0083277430385351181
8.56516075134277344 -0.661291956901550293 4.56316661834716797 0.0131480731070041656
8.84823036193847656 -3.12675285339355469 3.88227295875549316 0.00953578855842351913
8.54286289215087891 -0.720588743686676025 3.72257661819458008 0.0134914787486195564
8.85328102111816406 -3.17423796653747559 3.1062324047088623 0.0101681491360068321
8.52502822875976562 -0.776577174663543701 2.94845986366271973 0.0163060277700424194
8.85879802703857422 -3.21665477752685547 2.38885736465454102 0.00975836720317602158
8.510650634765625 -0.824014186859130859 2.23622655868530273 0.0155892446637153625
8.86497402191162109 -3.25512933731079102 1.72544181346893311 0.010257435031235218
8.49964141845703125 -0.867127001285552979 1.58064949512481689 0.016544124111533165
8.87200260162353516 -3.28923940658569336 1.11251151561737061 0.0108785917982459068
8.49105262756347656 -0.90400385856628418 0.977537095546722412 0.0176388490945100784
8.87915992736816406 -3.31918478012084961 0.545286834239959717 0.0121823465451598167
8.48669815063476562 -0.933546185493469238 0.42114672064781189 0.0171558968722820282
8.88588333129882812 -3.34461736679077148 0.0205961335450410843 0.0124774249270558357
8.48493099212646484 -0.95672231912612915 -0.0919774323701858521 0.0156942009925842285
8.89303207397460938 -3.36703395843505859 -0.505035936832427979 0.0126680927351117134
8.48575115203857422 -0.977080583572387695 -0.603329062461853027 0.0143855102360248566
8.90200042724609375 -3.38979411125183105 -1.0738755464553833 0.014742804691195488
8.48864078521728516 -0.996036410331726074 -1.15648746490478516 0.015005672350525856
8.91054248809814453 -3.40769433975219727 -1.69017565250396729 0.0151424650102853775
8.49285793304443359 -1.01251506805419922 -1.75395524501800537 0.0170952212065458298
8.91821479797363281 -3.42160248756408691 -2.35820889472961426 0.0154371121898293495
8.49906539916992188 -1.0206836462020874 -2.39942598342895508 0.0167188234627246857
8.92567253112792969 -3.43058252334594727 -3.08149480819702148 0.0162487942725419998
8.50809001922607422 -1.02580487728118896 -3.09943103790283203 0.0192733462899923325
8.93215847015380859 -3.43374013900756836 -3.86630868911743164 0.017978426069021225
8.51786231994628906 -1.02123022079467773 -3.85649609565734863 0.0212162677198648453
8.93642997741699219 -3.42346382141113281 -4.71661806106567383 0.0169009361416101456
8.52959251403808594 -1.00392651557922363 -4.67711353302001953 0.01954660564661026
8.93786334991455078 -3.40239143371582031 -5.63776159286499023 0.0164869353175163269
8.54143238067626953 -0.974821150302886963 -5.56607484817504883 0.0177051015198230743
8.93440532684326172 -3.36441612243652344 -6.63478612899780273 0.0130841778591275215
8.55465984344482422 -0.932773113250732422 -6.53045892715454102 0.0160310938954353333
8.92834186553955078 -3.31306886672973633 -7.71018791198730469 0.0124750956892967224
8.56907749176025391 -0.875030696392059326 -7.57604074478149414 0.0154017619788646698
8.91665363311767578 -3.24229812622070312 -8.87299346923828125 0.0107299815863370895
8.58765888214111328 -0.799767374992370605 -8.71020126342773438 0.0136347431689500809
8.90222263336181641 -3.15306806564331055 -10.1273965835571289 0.00970601849257946014
8.61000347137451172 -0.703790545463562012 -9.94013214111328125 0.0126990498974919319
8.884735107421875 -3.04513812065124512 -11.4801769256591797 0.00826004799455404282
8.63609886169433594 -0.591583490371704102 -11.2768745422363281 0.0120635386556386948
8.86459445953369141 -2.92108011245727539 -12.938755989074707 0.00661705760285258293
8.66659355163574219 -0.459536552429199219 -12.7303323745727539 0.00942086242139339447
8.84484672546386719 -2.78898262977600098 -14.5105476379394531 0.00531289447098970413
8.70117759704589844 -0.32300800085067749 -14.3113641738891602 0.00807148497551679611
8.82708549499511719 -2.65472602844238281 -16.2067241668701172 0.00355014973320066929
8.73400115966796875 -0.182942509651184082 -16.0355072021484375 0.0062551167793571949
8.81551361083984375 -2.54678177833557129 -18.0316352844238281 0.00141547946259379387
8.77530288696289062 -0.0960586369037628174 -17.9383182525634766 0.00340854143723845482
8.81063556671142578 -2.5 -20 0
8.81063556671142578 -1.28077590465545654 -20 1.1920928955078125e-07
8.81063556671142578 -0.499999821186065674 -20 1.78813934326171875e-07
8.81063556671142578 -1.36035211539820011e-07 -20 1.36035211539820011e-07
10.0569210052490234 -2.5 20 0
10.0569210052490234 -1.28077614307403564 20 1.1920928955078125e-07
10.0569210052490234 -0.499999940395355225 20 5.9604644775390625e-08
10.0569210052490234 -4.39804921370523516e-08 20 4.39804921370523516e-08
10.0575885772705078 -2.50857686996459961 18.0051498413085938 0.000192890496691688895
10.047123908996582 -0.0229680482298135757 17.9819679260253906 0.000487885234178975224
10.0606298446655273 -2.53741002082824707 16.1632499694824219 0.000489172234665602446
10.0335445404052734 -0.0487407669425010681 16.1132583618164062 0.000938880257308483124
10.0659151077270508 -2.5791318416595459 14.4587001800537109 0.000556112790945917368
10.0174808502197266 -0.0922798141837120056 14.3906974792480469 0.000984198530204594135
10.0703840255737305 -2.62672233581542969 12.8816709518432617 0.000735456065740436316
9.99918079376220703 -0.142083212733268738 12.8003549575805664 0.00108191173058003187
10.0752468109130859 -2.67705011367797852 11.4238395690917969 0.000753050262574106455
9.98041820526123047 -0.196571990847587585 11.3330163955688477 0.00149678054731339216
10.0789079666137695 -2.72742438316345215 10.0755681991577148 0.00108519615605473518
9.96046257019042969 -0.24986545741558075 9.97710800170898438 0.00168938538990914822
10.0812196731567383 -2.77583217620849609 8.82805728912353516 0.00224148319102823734
9.94092941284179688 -0.305801630020141602 8.72434711456298828 0.0024812587071210146
10.0827150344848633 -2.82278680801391602 7.67458295822143555 0.00341333122923970222
9.91895961761474609 -0.360147148370742798 7.5660548210144043 0.00312996353022754192
10.0836801528930664 -2.86770033836364746 6.60956287384033203 0.00405175844207406044
9.89723300933837891 -0.414206564426422119 6.49628543853759766 0.00476285303011536598
10.0858306884765625 -2.91049313545227051 5.62657737731933594 0.00402882788330316544
9.87440681457519531 -0.465296119451522827 5.50821113586425781 0.0059424261562526226
10.0898122787475586 -2.95145893096923828 4.7193446159362793 0.00480354670435190201
9.85359477996826172 -0.514695525169372559 4.59693813323974609 0.00759388040751218796
10.0950345993041992 -2.98984456062316895 3.88089251518249512 0.00420111790299415588
9.83460903167724609 -0.560587823390960693 3.75680398941040039 0.00926447752863168716
10.1000213623046875 -3.02772188186645508 3.10548281669616699 0.00532664451748132706
9.82043170928955078 -0.602172613143920898 2.9827733039855957 0.0104940189048647881
10.1054458618164062 -3.06215238571166992 2.38814306259155273 0.00625681830570101738
9.80905818939208984 -0.639245867729187012 2.26932406425476074 0.0110260806977748871
10.1112861633300781 -3.09416484832763672 1.72519397735595703 0.00809441693127155304
9.79980754852294922 -0.670710206031799316 1.61205422878265381 0.0102504044771194458
10.1172676086425781 -3.11852622032165527 1.1117321252822876 0.00580635247752070427
9.79393291473388672 -0.700562179088592529 1.00587248802185059 0.0124306436628103256
10.1241302490234375 -3.142425537109375 0.544776976108551025 0.00657083839178085327
9.78881168365478516 -0.724156022071838379 0.447592705488204956 0.013382958248257637
10.1295709609985352 -3.16452980041503906 0.0205353312194347382 0.00884534511715173721
9.78669071197509766 -0.74309384822845459 -0.0681015551090240479 0.0135923735797405243
10.1358547210693359 -3.18078470230102539 -0.504742801189422607 0.00721755577251315117
9.78588390350341797 -0.757856070995330811 -0.583004593849182129 0.0125051494687795639
10.1423244476318359 -3.19943380355834961 -1.07355201244354248 0.00967535283416509628
9.78662490844726562 -0.775344133377075195 -1.13877296447753906 0.0145899020135402679
10.1483659744262695 -3.21367073059082031 -1.69007229804992676 0.00892926566302776337
9.78855514526367188 -0.785585761070251465 -1.74049746990203857 0.0131087871268391609
10.1555452346801758 -3.22690773010253906 -2.3581080436706543 0.00981141906231641769
9.79219627380371094 -0.794141709804534912 -2.39123773574829102 0.0133548099547624588
10.1616973876953125 -3.23599338531494141 -3.08247065544128418 0.0117184463888406754
9.7978057861328125 -0.799147546291351318 -3.09573554992675781 0.0144163826480507851
10.1658296585083008 -3.23676872253417969 -3.86646270751953125 0.0115361660718917847
9.80412769317626953 -0.796567320823669434 -3.85769319534301758 0.0144075751304626465
10.1677789688110352 -3.23099780082702637 -4.71555042266845703 0.0124028865247964859
9.81068038940429688 -0.786613881587982178 -4.68308639526367188 0.0150826442986726761
10.1671695709228516 -3.21470737457275391 -5.63449621200561523 0.0122440960258245468
9.81926345825195312 -0.766272425651550293 -5.57680892944335938 0.0141190150752663612
10.1640586853027344 -3.18575763702392578 -6.62745475769042969 0.0106336222961544991
9.82941532135009766 -0.73498237133026123 -6.5447697639465332 0.0129509605467319489
10.1569118499755859 -3.1434323787689209 -7.70108318328857422 0.00860810372978448868
9.84263706207275391 -0.689601540565490723 -7.59302043914794922 0.0115255359560251236
10.1480655670166016 -3.08730030059814453 -8.85992908477783203 0.00799284130334854126
9.85902976989746094 -0.631414532661437988 -8.72955608367919922 0.0117723951116204262
10.1351995468139648 -3.01569294929504395 -10.112034797668457 0.00718950573354959488
9.87922954559326172 -0.554747223854064941 -9.96167373657226562 0.0102409012615680695
10.1200017929077148 -2.92867732048034668 -11.4639492034912109 0.00587388128042221069
9.90274810791015625 -0.464037835597991943 -11.3010826110839844 0.00882618874311447144
10.1027755737304688 -2.82918667793273926 -12.9224538803100586 0.00493248412385582924
9.93044853210449219 -0.359056353569030762 -12.7546062469482422 0.0076551469974219799
10.0860729217529297 -2.7229914665222168 -14.4961662292480469 0.00391037948429584503
9.96250438690185547 -0.250346779823303223 -14.3368406295776367 0.00645505217835307121
10.071162223815918 -2.61630010604858398 -16.1938304901123047 0.00258830701932311058
9.99294185638427734 -0.139378279447555542 -16.0605106353759766 0.0048554600216448307
10.0611019134521484 -2.53378987312316895 -18.0232353210449219 0.000726727070286870003
10.0279340744018555 -0.0719031095504760742 -17.9518890380859375 0.00287002208642661572
10.0569210052490234 -2.5 -20 0
10.0569210052490234 -1.28077602386474609 -20 0
10.0569210052490234 -0.500000059604644775 -20 5.9604644775390625e-08
10.0569210052490234 -5.61805890697542054e-08 -20 5.61805890697542054e-08
11.4054269790649414 -2.5000002384185791 20 2.384185791015625e-07
11.4054269790649414 -1.28077602386474609 20 0
11.4054269790649414 -0.500000059604644775 20 5.9604644775390625e-08
11.4054269790649414 -1.82627921674338722e-08 20 1.82627921674338722e-08
11.4057579040527344 -2.50519633293151855 18.0030174255371094 0.000264875328866764903
11.3976974487304688 -0.0150574399158358574 17.9876003265380859 0.000480460468679666519
11.4082841873168945 -2.52509164810180664 16.1590309143066406 0.000218853718251921237
11.3863420486450195 -0.0350728295743465424 16.1240863800048828 0.000682304613292217255
11.4125795364379883 -2.55541896820068359 14.4540014266967773 0.000750183535274118185
11.3726949691772461 -0.0665311515331268311 14.403630256652832 0.000817403313703835011
11.4167842864990234 -2.59109401702880859 12.8769197463989258 0.00125795893836766481
11.3565988540649414 -0.10508352518081665 12.8149967193603516 0.000822402187623083591
11.4206037521362305 -2.62954568862915039 11.4184598922729492 0.00133999332319945097
11.3402099609375 -0.146285459399223328 11.3487005233764648 0.000558619503863155842
11.424229621887207 -2.66815829277038574 10.0702409744262695 0.00127383368089795113
11.3233213424682617 -0.188210487365722656 9.99388408660888672 0.000584101187996566296
11.4270801544189453 -2.70698809623718262 8.82364559173583984 0.000890752766281366348
11.3067140579223633 -0.229811742901802063 8.74313735961914062 0.00131321069784462452
11.4289827346801758 -2.74323368072509766 7.67101621627807617 0.00128167332150042057
11.2908086776733398 -0.270289301872253418 7.58807897567749023 0.00131674844305962324
11.4309701919555664 -2.7778162956237793 6.60632085800170898 0.00201940909028053284
11.2741003036499023 -0.309631705284118652 6.52058076858520508 0.00199384195730090141
11.4323492050170898 -2.81233072280883789 5.62278270721435547 0.00241371314041316509
